ncols        160
nrows        29
xllcorner    -88.508379890000
yllcorner    28.991573030000
dx           0.016759776556
dy           0.016853932667
NODATA_value -9999
0.77785027027130126953 0 0.15785025060176849365 0.60785025358200073242 0.2678502500057220459 2.0758042335510253906 3.1058042049407958984 3.5458042621612548828 3.7558043003082275391 3.7958042621612548828 3.8558042049407958984 5.6258044242858886719 3.6658043861389160156 3.5946199893951416016 3.5546200275421142578 3.5146200656890869141 3.4546198844909667969 3.3346199989318847656 3.2546200752258300781 3.1646199226379394531 3.0646200180053710938 2.9843659400939941406 2.8943660259246826172 2.6443660259246826172 1.3543659448623657227 0 0 0 0 0 0 0 0 0 0 0 0 1.7157188653945922852 0 0 0 0 3.1357188224792480469 2.4557187557220458984 2.6357188224792480469 2.7058112621307373047 0.38581126928329467773 0 0 0 0 0.89581125974655151367 2.8758113384246826172 1.1319926977157592773 6.6219925880432128906 2.5119926929473876953 3.1919927597045898438 6.4019927978515625 4.8019928932189941406 2.4519927501678466797 2.8519926071166992188 3.5756940841674804688 4.6556940078735351563 5.4356942176818847656 7.6556940078735351563 11.62569427490234375 14.285694122314453125 15.965694427490234375 16.785694122314453125 17.4274139404296875 17.817413330078125 18.1774139404296875 18.567413330078125 19.9274139404296875 20.757413864135742188 21.407413482666015625 21.827413558959960938 21.564607620239257813 21.244607925415039063 22.014606475830078125 21.974607467651367188 23.10460662841796875 22.694606781005859375 20.654607772827148438 21.454607009887695313 21.817897796630859375 22.407896041870117188 22.887897491455078125 23.00789642333984375 22.307897567749023438 21.767896652221679688 23.407896041870117188 23.5478973388671875 23.158987045288085938 21.96898651123046875 22.878986358642578125 24.318986892700195313 25.43898773193359375 23.168987274169921875 22.07898712158203125 21.428987503051757813 23.283246994018554688 23.77324676513671875 23.4532470703125 24.0632476806640625 23.763246536254882813 24.293247222900390625 24.403247833251953125 24.473247528076171875 23.72127532958984375 23.781276702880859375 23.69127655029296875 23.201276779174804688 21.851276397705078125 21.981275558471679688 21.421276092529296875 21.041276931762695313 20.443325042724609375 19.68332672119140625 18.803325653076171875 16.973325729370117188 13.943325996398925781 8.3133258819580078125 3.3233258724212646484 0 0 0 0 0 0 0 0 0 0 0 0 0 0 0 0 0 0 0 0 0 0 0 0 0 0 0 0 0 0 0 0 0 0 0 0
1.7078502178192138672 1.9578502178192138672 1.9678502082824707031 1.6878502368927001953 1.107850193977355957 2.7058043479919433594 3.1358041763305664063 3.6658043861389160156 4.0358042716979980469 4.0358042716979980469 4.3358044624328613281 5.4958043098449707031 3.6058042049407958984 3.5546200275421142578 3.5146200656890869141 3.4546198844909667969 3.3946199417114257813 3.3046200275421142578 3.1746199131011962891 3.0846199989318847656 3.02462005615234375 2.9443659782409667969 2.8643660545349121094 2.7643659114837646484 2.6843659877777099609 2.2743659019470214844 0.76436591148376464844 0 0 0 0 0 0 0 0 0 0 2.2957189083099365234 0.43571883440017700195 1.1357188224792480469 0.46571883559226989746 0 2.6957187652587890625 1.4057188034057617188 0.32571882009506225586 0.35581126809120178223 0 0 0 2.5058112144470214844 3.3058111667633056641 3.7458112239837646484 5.0258111953735351563 5.5419926643371582031 6.1319928169250488281 5.4219927787780761719 7.3419928550720214844 7.8319926261901855469 9.0719928741455078125 10.461992263793945313 12.83199310302734375 13.635694503784179688 14.985693931579589844 16.275693893432617188 17.465694427490234375 18.325695037841796875 19.23569488525390625 19.76569366455078125 19.205694198608398438 19.097414016723632813 19.597414016723632813 20.257413864135742188 21.167413711547851563 21.63741302490234375 22.447414398193359375 23.067413330078125 22.827413558959960938 23.704607009887695313 23.704607009887695313 24.154607772827148438 23.834606170654296875 22.10460662841796875 20.78460693359375 21.524606704711914063 22.944606781005859375 23.987895965576171875 24.657896041870117188 25.067897796630859375 24.22789764404296875 24.027896881103515625 23.127897262573242188 22.167896270751953125 22.497896194458007813 22.448987960815429688 22.32898712158203125 23.308986663818359375 25.018987655639648438 26.338987350463867188 24.028987884521484375 23.89898681640625 24.728986740112304688 24.783246994018554688 24.973247528076171875 24.803247451782226563 24.873247146606445313 25.543247222900390625 25.043247222900390625 24.8432464599609375 25.013246536254882813 24.561275482177734375 24.231275558471679688 22.421276092529296875 23.051275253295898438 23.87127685546875 23.361276626586914063 23.981275558471679688 23.401275634765625 23.003326416015625 22.123325347900390625 21.10332489013671875 20.503326416015625 18.673326492309570313 18.873325347900390625 17.543325424194335938 15.103325843811035156 9.4907073974609375 1.9307072162628173828 0 0 0 0 0 0 0 0 0 0 0 0 0 0 0 0 0 0 0 0 0 0 0 0 0 0 0 0 0 0 0 0 0
2.5078501701354980469 2.5378501415252685547 2.4478502273559570313 2.4678502082824707031 2.1678502559661865234 2.6458041667938232422 3.3858041763305664063 3.7558043003082275391 4.1858043670654296875 4.4458041191101074219 5.5958042144775390625 4.5658044815063476563 3.8158042430877685547 3.7446200847625732422 3.6746199131011962891 3.6546199321746826172 3.6046199798583984375 3.5446200370788574219 3.2646200656890869141 3.0746200084686279297 2.9646201133728027344 2.8843660354614257813 2.8143658638000488281 2.7043659687042236328 2.5743658542633056641 2.4443659782409667969 2.174365997314453125 0.91436594724655151367 0.044365938752889633179 0 0 0 0 0 0 0 0 0 0 0 0 0.865718841552734375 0.015718823298811912537 0 1.115718841552734375 2.655811309814453125 2.9858112335205078125 3.9258112907409667969 6.0458111763000488281 7.3058114051818847656 8.13581085205078125 8.74581146240234375 8.585811614990234375 8.22199249267578125 8.5319929122924804688 10.641992568969726563 12.08199310302734375 13.791993141174316406 14.72199249267578125 14.931992530822753906 15.961992263793945313 17.295694351196289063 18.565694808959960938 20.295694351196289063 22.075695037841796875 22.175693511962890625 20.165693283081054688 19.395694732666015625 19.795694351196289063 20.477413177490234375 21.017414093017578125 21.767414093017578125 22.9274139404296875 23.317413330078125 24.557413101196289063 24.537412643432617188 24.63741302490234375 26.114606857299804688 26.364606857299804688 25.78460693359375 24.03460693359375 21.184606552124023438 22.184606552124023438 23.724607467651367188 24.524606704711914063 25.2978973388671875 25.36789703369140625 25.137897491455078125 25.527896881103515625 24.687896728515625 23.647897720336914063 23.457897186279296875 23.147897720336914063 23.088987350463867188 24.46898651123046875 25.918987274169921875 26.888986587524414063 26.908987045288085938 25.68898773193359375 23.18898773193359375 25.358987808227539063 23.963247299194335938 24.13324737548828125 23.913248062133789063 22.553247451782226563 21.673246383666992188 21.693246841430664063 21.77324676513671875 22.973247528076171875 23.281276702880859375 22.611276626586914063 23.461277008056640625 24.751276016235351563 25.851276397705078125 25.0112762451171875 26.211277008056640625 25.951276779174804688 24.973325729370117188 24.60332489013671875 23.413326263427734375 21.93332672119140625 20.113325119018554688 18.993326187133789063 19.553325653076171875 19.8933258056640625 19.860706329345703125 19.010707855224609375 16.45070648193359375 10.220706939697265625 2.1007070541381835938 0 0 0 0 0 0 0 0 0 0 0 0 0 0 0.062577180564403533936 0 0 1.0325771570205688477 0 0 0 0 0 0 0 0 0 0 0 0
3.0278501510620117188 2.987850189208984375 2.827850341796875 2.7878501415252685547 2.3478503227233886719 0.89580428600311279297 1.2958042621612548828 3.2758042812347412109 4.3758044242858886719 5.2358040809631347656 6.7858042716979980469 4.42580413818359375 4.2458043098449707031 4.0846199989318847656 3.9646201133728027344 3.8946199417114257813 3.3046200275421142578 3.0146200656890869141 3.1946198940277099609 3.0146200656890869141 2.8046200275421142578 2.7243659496307373047 2.6343660354614257813 2.5543658733367919922 2.4043660163879394531 2.2843658924102783203 1.9343659877777099609 0 0 0 0 0 0 0 0 0 0 0 0 1.0857188701629638672 2.6357188224792480469 3.7957189083099365234 5.02571868896484375 6.8357186317443847656 7.8857188224792480469 8.7758111953735351563 8.8658113479614257813 8.8558111190795898438 9.1658115386962890625 10.145811080932617188 10.795811653137207031 11.445811271667480469 11.945811271667480469 11.341992378234863281 10.521992683410644531 13.601992607116699219 14.091992378234863281 15.481992721557617188 16.851993560791015625 18.261993408203125 19.981992721557617188 20.925693511962890625 21.675693511962890625 23.455694198608398438 23.455694198608398438 21.4456939697265625 19.825695037841796875 20.655694961547851563 21.295694351196289063 21.807413101196289063 21.837413787841796875 22.577413558959960938 23.077413558959960938 24.7074127197265625 25.907413482666015625 26.577413558959960938 26.547412872314453125 26.374607086181640625 25.664608001708984375 22.934606552124023438 22.9246063232421875 23.53460693359375 23.82460784912109375 24.704607009887695313 23.46460723876953125 23.437896728515625 23.287897109985351563 23.287897109985351563 23.767896652221679688 24.517896652221679688 24.187896728515625 24.037897109985351563 23.777896881103515625 23.778987884521484375 24.018987655639648438 23.868986129760742188 25.548986434936523438 25.39898681640625 24.89898681640625 23.058986663818359375 24.978986740112304688 24.983247756958007813 23.013246536254882813 21.723247528076171875 21.543247222900390625 22.653247833251953125 23.643247604370117188 24.193246841430664063 25.403247833251953125 25.72127532958984375 25.571275711059570313 25.961277008056640625 26.571275711059570313 26.431276321411132813 26.041276931762695313 26.051275253295898438 26.591276168823242188 26.093326568603515625 26.1433258056640625 25.163326263427734375 24.253326416015625 23.053325653076171875 22.063325881958007813 22.373325347900390625 22.46332550048828125 21.480707168579101563 20.400707244873046875 19.750707626342773438 18.4907073974609375 17.120706558227539063 14.680706977844238281 7.4507069587707519531 0 0 0 0 0 0 0 0 0 0 0.99257719516754150391 2.1225771903991699219 2.4725770950317382813 2.4325771331787109375 2.6325771808624267578 2.4325771331787109375 0.70257717370986938477 0 0 0 0 0 0 0 0 0 0 0
3.7128582000732421875 2.9928581714630126953 2.1928582191467285156 1.5428582429885864258 0.72285819053649902344 0.23631805181503295898 0 0 2.4863181114196777344 4.3163180351257324219 7.29631805419921875 5.04631805419921875 5.0363178253173828125 4.4458718299865722656 3.1658718585968017578 1.6758718490600585938 0.18587180972099304199 0.90587180852890014648 1.6958718299865722656 2.8458719253540039063 2.795871734619140625 2.5948579311370849609 2.3648579120635986328 1.0348579883575439453 0.27485793828964233398 0.34485793113708496094 0 0 0 0 0 0 0 0 0.044043883681297302246 1.6240439414978027344 4.2140440940856933594 7.8353810310363769531 8.535381317138671875 8.7453813552856445313 9.4053812026977539063 8.9753808975219726563 8.6453809738159179688 9.105381011962890625 9.2453813552856445313 9.3939361572265625 10.583935737609863281 11.653935432434082031 12.633935928344726563 13.203935623168945313 13.663935661315917969 13.373935699462890625 14.493935585021972656 15.677217483520507813 15.127218246459960938 16.867218017578125 17.877218246459960938 18.837217330932617188 19.867218017578125 20.747217178344726563 21.377218246459960938 22.365709304809570313 23.975709915161132813 25.135709762573242188 24.495710372924804688 21.12570953369140625 19.775709152221679688 20.545709609985351563 21.975709915161132813 22.8150787353515625 23.155078887939453125 24.125078201293945313 24.685079574584960938 25.8150787353515625 28.185079574584960938 27.85507965087890625 26.475078582763671875 23.529468536376953125 23.419467926025390625 23.309469223022460938 21.75946807861328125 22.459468841552734375 22.859468460083007813 22.249467849731445313 22.539468765258789063 23.767423629760742188 24.807422637939453125 24.537424087524414063 24.357423782348632813 24.277423858642578125 22.567422866821289063 22.957424163818359375 22.807422637939453125 21.776580810546875 23.026580810546875 23.81658172607421875 24.976581573486328125 24.286581039428710938 25.246580123901367188 24.496580123901367188 23.806581497192382813 24.620700836181640625 22.57070159912109375 23.250701904296875 25.000701904296875 25.96070098876953125 26.590702056884765625 27.830701828002929688 28.660701751708984375 28.594472885131835938 29.214473724365234375 28.664472579956054688 28.824472427368164063 28.614473342895507813 29.244472503662109375 29.83447265625 29.104473114013671875 28.874408721923828125 28.064409255981445313 26.74440765380859375 27.1444091796875 26.74440765380859375 26.07440948486328125 25.014408111572265625 23.924407958984375 22.138179779052734375 21.858179092407226563 20.878179550170898438 20.5881805419921875 19.5881805419921875 19.038179397583007813 18.01818084716796875 17.328180313110351563 12.803412437438964844 4.8334126472473144531 0 0 0 0 0 0 0 1.8104331493377685547 2.8304331302642822266 2.6804332733154296875 2.3504331111907958984 3.6304330825805664063 4.1104331016540527344 1.9904332160949707031 0 0 0.70200479030609130859 2.4820048809051513672 1.5920047760009765625 0.62200474739074707031 0.64200478792190551758 0 0 0 0
5.3028583526611328125 5.8228583335876464844 6.1428580284118652344 6.2428584098815917969 5.4828581809997558594 1.6863180398941040039 0.71631807088851928711 1.3963180780410766602 2.2663180828094482422 3.2463181018829345703 7.7863178253173828125 7.9063181877136230469 4.54631805419921875 2.5158717632293701172 1.4858717918395996094 0.15587180852890014648 0 0 0 0.10587181150913238525 0.18587180972099304199 0 0 0 0 0 0 0.85485792160034179688 2.3548579216003417969 3.1540439128875732422 4.3540439605712890625 5.594043731689453125 6.93404388427734375 8.3940439224243164063 7.9640440940856933594 8.7940435409545898438 9.3940439224243164063 10.535381317138671875 10.115381240844726563 9.69538116455078125 11.145380973815917969 11.105381011962890625 11.965381622314453125 11.355381011962890625 10.94538116455078125 11.733936309814453125 11.943935394287109375 11.853936195373535156 12.473936080932617188 13.633935928344726563 14.473936080932617188 15.973936080932617188 16.653936386108398438 17.54721832275390625 18.147218704223632813 19.04721832275390625 19.817216873168945313 19.7572174072265625 20.587217330932617188 21.43721771240234375 22.207218170166015625 23.245710372924804688 25.225709915161132813 26.815710067749023438 25.705709457397460938 23.455709457397460938 21.465709686279296875 23.115709304809570313 23.495710372924804688 24.525079727172851563 26.595079421997070313 27.155078887939453125 28.49507904052734375 29.205078125 27.265079498291015625 25.775079727172851563 24.775079727172851563 24.059469223022460938 23.239469528198242188 23.319469451904296875 24.949468612670898438 24.389469146728515625 24.289468765258789063 23.50946807861328125 25.4094696044921875 24.497423171997070313 25.667423248291015625 25.75742340087890625 24.457424163818359375 24.9674224853515625 24.627422332763671875 23.497423171997070313 24.657423019409179688 25.216581344604492188 25.09658050537109375 26.06658172607421875 26.506580352783203125 27.176580429077148438 27.336580276489257813 24.036581039428710938 23.426580429077148438 24.310701370239257813 25.480701446533203125 27.520700454711914063 27.500701904296875 27.700700759887695313 28.480701446533203125 28.35070037841796875 29.980701446533203125 29.734472274780273438 30.824472427368164063 30.984472274780273438 30.674472808837890625 30.9744720458984375 31.144472122192382813 31.244472503662109375 30.844472885131835938 30.474409103393554688 29.884408950805664063 29.334407806396484375 28.1444091796875 27.254407882690429688 25.724409103393554688 25.184408187866210938 24.774408340454101563 24.488180160522460938 23.79817962646484375 23.348180770874023438 23.198179244995117188 22.718179702758789063 21.5881805419921875 19.968179702758789063 20.128179550170898438 19.55341339111328125 18.753412246704101563 16.473413467407226563 7.4934124946594238281 0 0 0 0 0 1.9504332542419433594 1.890433192253112793 0 0 0 2.0304331779479980469 4.6904330253601074219 0.75200480222702026367 0.87200474739074707031 3.6420047283172607422 0 0 0 0 0 0 0 0
10.45285797119140625 10.502858161926269531 10.362857818603515625 9.972858428955078125 9.2328586578369140625 7.4663181304931640625 2.8063180446624755859 3.1663179397583007813 4.1263179779052734375 3.0763180255889892578 8.5763177871704101563 3.4663181304931640625 1.8563179969787597656 3.2258718013763427734 4.8058719635009765625 5.9958720207214355469 6.8358716964721679688 7.0558719635009765625 6.6458716392517089844 6.0358719825744628906 5.1458716392517089844 3.7648580074310302734 3.4848580360412597656 4.1448578834533691406 5.0648579597473144531 6.67485809326171875 8.7148580551147460938 10.164857864379882813 10.694857597351074219 10.444044113159179688 9.3940439224243164063 10.174043655395507813 10.174043655395507813 10.214043617248535156 10.674043655395507813 10.234044075012207031 10.244044303894042969 10.235381126403808594 11.015380859375 11.965381622314453125 12.235381126403808594 12.995381355285644531 13.425381660461425781 14.235381126403808594 14.785381317138671875 13.003935813903808594 13.46393585205078125 14.433936119079589844 15.183936119079589844 16.163936614990234375 17.013935089111328125 18.07393646240234375 19.203935623168945313 19.917217254638671875 19.987216949462890625 20.707218170166015625 20.707218170166015625 20.877218246459960938 21.107217788696289063 21.637218475341796875 22.917217254638671875 24.325710296630859375 26.115709304809570313 28.425710678100585938 26.855709075927734375 26.315710067749023438 23.755710601806640625 24.3057098388671875 25.695709228515625 26.905078887939453125 28.555078506469726563 29.295078277587890625 28.915079116821289063 27.735078811645507813 27.0650787353515625 25.645078659057617188 25.965078353881835938 26.1594696044921875 26.11946868896484375 26.179468154907226563 26.359468460083007813 27.499467849731445313 27.459468841552734375 27.019468307495117188 27.179468154907226563 27.517423629760742188 26.567422866821289063 26.11742401123046875 27.677423477172851563 26.9674224853515625 26.907423019409179688 26.637422561645507813 26.7174224853515625 28.6365814208984375 29.046581268310546875 29.59658050537109375 29.31658172607421875 29.826580047607421875 25.906579971313476563 25.516580581665039063 24.556581497192382813 26.330701828002929688 29.080701828002929688 28.940700531005859375 29.340702056884765625 28.71070098876953125 28.53070068359375 27.750701904296875 28.790700912475585938 29.104473114013671875 29.304471969604492188 29.83447265625 30.184473037719726563 31.15447235107421875 31.114473342895507813 31.984472274780273438 32.08447265625 31.554409027099609375 31.724409103393554688 30.884408950805664063 29.674407958984375 28.71440887451171875 27.60440826416015625 26.914407730102539063 25.96440887451171875 25.948179244995117188 25.6181793212890625 25.238180160522460938 25.248180389404296875 24.8381805419921875 24.108179092407226563 23.308179855346679688 22.828180313110351563 22.283412933349609375 21.343412399291992188 20.183412551879882813 19.683412551879882813 16.753412246704101563 8.5434122085571289063 0 0 0 0 0 0 0 0 1.0604331493377685547 3.6104331016540527344 5.0320048332214355469 5.0920047760009765625 1.5420048236846923828 0 0 0 0 0 0 0 0
12.962858200073242188 12.822857856750488281 12.56285858154296875 12.092858314514160156 11.242857933044433594 10.326317787170410156 8.1463184356689453125 4.1963181495666503906 3.29631805419921875 3.8063180446624755859 8.0063180923461914063 4.3563179969787597656 7.206317901611328125 9.0358715057373046875 10.115871429443359375 11.325871467590332031 12.305871963500976563 12.765872001647949219 12.945871353149414063 11.95587158203125 9.865871429443359375 8.6448583602905273438 8.9548578262329101563 9.5348577499389648438 10.304858207702636719 10.56485748291015625 10.864857673645019531 11.284857749938964844 10.824857711791992188 10.624043464660644531 10.764043807983398438 10.104043960571289063 10.924043655395507813 11.124043464660644531 10.994044303894042969 11.794043540954589844 12.474043846130371094 12.555380821228027344 13.19538116455078125 13.865381240844726563 14.205381393432617188 14.265380859375 14.745381355285644531 15.675381660461425781 16.535381317138671875 18.433935165405273438 17.57393646240234375 16.46393585205078125 17.383935928344726563 18.293935775756835938 19.783935546875 20.82393646240234375 21.253936767578125 21.517217636108398438 21.5072174072265625 21.087217330932617188 20.347217559814453125 20.887218475341796875 22.027217864990234375 23.627218246459960938 25.32721710205078125 26.405710220336914063 28.145709991455078125 27.935708999633789063 28.045709609985351563 27.435708999633789063 25.495710372924804688 26.0557098388671875 26.91571044921875 28.555078506469726563 29.215078353881835938 29.195079803466796875 29.175079345703125 27.645078659057617188 26.705078125 26.88507843017578125 27.60507965087890625 28.139469146728515625 28.589468002319335938 28.649469375610351563 29.429468154907226563 29.8294677734375 30.8294677734375 31.459468841552734375 29.969469070434570313 30.427423477172851563 30.6874237060546875 29.957424163818359375 29.157423019409179688 28.067422866821289063 28.017423629760742188 28.00742340087890625 27.487422943115234375 29.546581268310546875 29.4165802001953125 31.506580352783203125 31.296581268310546875 31.48657989501953125 28.4165802001953125 28.546581268310546875 30.266580581665039063 30.870700836181640625 29.590702056884765625 28.410701751708984375 27.480701446533203125 27.940700531005859375 28.550701141357421875 29.090702056884765625 30.010700225830078125 30.144472122192382813 29.864473342895507813 30.804471969604492188 30.984472274780273438 31.304471969604492188 30.794473648071289063 30.924472808837890625 31.7244720458984375 32.21440887451171875 31.74440765380859375 31.6444091796875 31.124408721923828125 30.7844085693359375 29.904409408569335938 29.374408721923828125 28.004407882690429688 27.308179855346679688 27.308179855346679688 27.028179168701171875 26.558179855346679688 26.3681793212890625 25.638179779052734375 25.108179092407226563 24.29817962646484375 23.743412017822265625 22.893413543701171875 21.69341278076171875 21.653411865234375 20.0134124755859375 19.293413162231445313 16.69341278076171875 7.6534128189086914063 0 0 0 0 0 0 0 1.5404331684112548828 7.1820049285888671875 1.6120047569274902344 0 0 0 0 0 0 0 0 0
14.342858314514160156 14.122858047485351563 13.8828582763671875 13.472858428955078125 12.752858161926269531 12.106318473815917969 10.816318511962890625 9.0863180160522460938 5.2363181114196777344 3.6063179969787597656 7.4763178825378417969 6.4363179206848144531 8.5563182830810546875 11.215871810913085938 12.3158721923828125 13.355872154235839844 14.345871925354003906 14.405871391296386719 12.445871353149414063 9.475872039794921875 9.0858716964721679688 9.81485748291015625 10.164857864379882813 10.264858245849609375 10.434858322143554688 11.56485748291015625 11.7448577880859375 11.414857864379882813 11.834857940673828125 11.674043655395507813 11.514043807983398438 11.93404388427734375 11.43404388427734375 11.354043960571289063 12.164043426513671875 12.444044113159179688 12.944044113159179688 13.645380973815917969 14.485381126403808594 15.365381240844726563 16.035381317138671875 16.745380401611328125 17.515380859375 18.865381240844726563 20.295381546020507813 21.253936767578125 22.003936767578125 21.553936004638671875 20.223936080932617188 20.843935012817382813 21.203935623168945313 21.443935394287109375 21.523935317993164063 21.697217941284179688 20.927217483520507813 20.167217254638671875 20.217218399047851563 21.597217559814453125 23.337217330932617188 24.957218170166015625 25.747217178344726563 27.445709228515625 27.745710372924804688 27.995710372924804688 27.525709152221679688 26.195709228515625 25.615709304809570313 27.48571014404296875 28.835710525512695313 30.015079498291015625 30.945079803466796875 30.615079879760742188 30.165079116821289063 28.895078659057617188 26.645078659057617188 26.955078125 27.905078887939453125 28.609468460083007813 28.929468154907226563 29.949468612670898438 30.449468612670898438 30.239469528198242188 30.75946807861328125 31.529468536376953125 32.58946990966796875 30.9374237060546875 31.547422409057617188 30.4374237060546875 28.247423171997070313 27.677423477172851563 27.107423782348632813 26.64742279052734375 26.797422409057617188 29.306581497192382813 29.936580657958984375 31.776580810546875 33.436580657958984375 34.3865814208984375 30.676580429077148438 30.70658111572265625 29.946580886840820313 29.170701980590820313 29.040700912475585938 29.28070068359375 30.1407012939453125 31.000701904296875 31.270700454711914063 31.360700607299804688 30.930700302124023438 32.01447296142578125 33.054473876953125 33.51447296142578125 33.174472808837890625 32.23447418212890625 31.65447235107421875 31.984472274780273438 32.01447296142578125 31.054409027099609375 31.174407958984375 32.014408111572265625 32.07440948486328125 31.99440765380859375 31.754407882690429688 30.584407806396484375 29.164407730102539063 28.528179168701171875 28.65818023681640625 28.168180465698242188 27.728179931640625 27.1181793212890625 26.598180770874023438 25.79817962646484375 25.238180160522460938 24.83341217041015625 24.063411712646484375 23.213413238525390625 22.58341217041015625 21.2634124755859375 20.723413467407226563 19.993412017822265625 18.483411788940429688 15.410432815551757813 4.9504332542419433594 0 0 0 0 0 6.6404333114624023438 0.93200474977493286133 0 0 0 0 0 0 0 0 0 0
15.242857933044433594 15.042858123779296875 14.872858047485351563 14.522858619689941406 13.892858505249023438 12.966318130493164063 12.04631805419921875 11.016318321228027344 8.2363176345825195313 6.8663182258605957031 7.0763182640075683594 8.5863180160522460938 12.076317787170410156 14.255871772766113281 15.055871963500976563 15.395872116088867188 15.115871429443359375 12.995871543884277344 10.655871391296386719 10.295871734619140625 10.265872001647949219 10.4948577880859375 10.944857597351074219 11.644858360290527344 11.964858055114746094 13.094858169555664063 13.724858283996582031 13.074857711791992188 12.81485748291015625 12.774044036865234375 12.274044036865234375 12.204044342041015625 12.714043617248535156 12.814043998718261719 13.0040435791015625 13.294043540954589844 13.704044342041015625 14.405381202697753906 15.055380821228027344 15.755381584167480469 17.025381088256835938 20.245380401611328125 23.44538116455078125 23.855381011962890625 23.44538116455078125 23.133935928344726563 23.153936386108398438 23.8939361572265625 23.733936309814453125 22.203935623168945313 21.873935699462890625 21.4239349365234375 21.283935546875 19.717218399047851563 19.517217636108398438 19.487216949462890625 21.347217559814453125 23.2272186279296875 25.167217254638671875 26.427217483520507813 27.777217864990234375 28.525709152221679688 28.685708999633789063 26.925710678100585938 26.495710372924804688 27.505710601806640625 28.12570953369140625 29.87570953369140625 30.605709075927734375 32.365077972412109375 29.835079193115234375 29.165079116821289063 28.215078353881835938 27.205078125 27.275079727172851563 28.88507843017578125 30.0650787353515625 31.549468994140625 32.50946807861328125 33.139469146728515625 31.72946929931640625 31.849468231201171875 31.649469375610351563 31.569469451904296875 32.36946868896484375 31.227422714233398438 31.527423858642578125 31.39742279052734375 30.86742401123046875 30.947423934936523438 29.707424163818359375 29.89742279052734375 30.287424087524414063 28.466581344604492188 29.56658172607421875 32.84658050537109375 34.076580047607421875 34.546581268310546875 31.9165802001953125 32.1665802001953125 31.296581268310546875 32.520702362060546875 32.230701446533203125 32.470699310302734375 32.18070220947265625 32.260700225830078125 31.720701217651367188 32.270702362060546875 32.200702667236328125 32.674472808837890625 33.214473724365234375 34.40447235107421875 34.324474334716796875 33.73447418212890625 33.114471435546875 32.564472198486328125 32.68447113037109375 31.374408721923828125 31.384408950805664063 31.704408645629882813 32.264408111572265625 32.914409637451171875 32.424407958984375 31.474409103393554688 30.174407958984375 29.228179931640625 29.318180084228515625 28.858179092407226563 28.278179168701171875 27.90818023681640625 27.138179779052734375 26.418180465698242188 25.68817901611328125 25.143413543701171875 24.663412094116210938 24.093412399291992188 23.793413162231445313 23.033412933349609375 22.353412628173828125 20.773412704467773438 20.063411712646484375 19.350433349609375 17.730432510375976563 12.520433425903320313 2.5404331684112548828 0 0 0 6.8604331016540527344 5.1920046806335449219 0.46200478076934814453 0 0 0 0 0 0 0 0 0
16.502859115600585938 16.262857437133789063 16.042858123779296875 15.622858047485351563 14.912858009338378906 13.206317901611328125 10.456317901611328125 11.416317939758300781 10.606318473815917969 10.226318359375 10.006318092346191406 13.976318359375 15.436318397521972656 15.155871391296386719 14.685872077941894531 13.88587188720703125 12.805871963500976563 12.605872154235839844 12.225872039794921875 11.585871696472167969 12.035871505737304688 11.654857635498046875 11.894858360290527344 12.474858283996582031 13.704857826232910156 14.594858169555664063 13.784857749938964844 13.504858016967773438 12.964858055114746094 12.984044075012207031 13.424043655395507813 13.364044189453125 13.18404388427734375 13.924043655395507813 14.284044265747070313 14.694044113159179688 15.194044113159179688 15.465381622314453125 16.19538116455078125 17.80538177490234375 21.245380401611328125 24.755380630493164063 25.05538177490234375 24.785381317138671875 23.44538116455078125 23.473936080932617188 23.813936233520507813 24.133935928344726563 24.313936233520507813 23.953935623168945313 22.783935546875 20.903936386108398438 19.6739349365234375 19.177217483520507813 20.177217483520507813 22.2572174072265625 23.657217025756835938 25.0072174072265625 26.427217483520507813 27.29721832275390625 28.817216873168945313 29.62570953369140625 30.935708999633789063 29.635709762573242188 28.355709075927734375 29.495710372924804688 29.885709762573242188 30.925710678100585938 31.5557098388671875 26.63507843017578125 25.415079116821289063 25.965078353881835938 26.905078887939453125 27.525079727172851563 30.0650787353515625 32.07508087158203125 32.615077972412109375 34.0794677734375 35.779468536376953125 35.28946685791015625 34.28946685791015625 34.1594696044921875 33.679470062255859375 34.25946807861328125 34.9394683837890625 34.457424163818359375 34.72742462158203125 35.03742218017578125 34.807422637939453125 34.377422332763671875 33.817424774169921875 32.847423553466796875 31.837423324584960938 30.59658050537109375 30.556581497192382813 31.476581573486328125 32.3865814208984375 33.766582489013671875 31.786581039428710938 32.406581878662109375 32.256580352783203125 31.940700531005859375 31.630701065063476563 31.750701904296875 31.630701065063476563 31.660701751708984375 32.020702362060546875 33.620700836181640625 33.93070220947265625 34.87447357177734375 35.094470977783203125 34.344470977783203125 33.4444732666015625 32.23447418212890625 33.614471435546875 33.844470977783203125 33.644474029541015625 33.0644073486328125 32.294406890869140625 32.474407196044921875 32.5344085693359375 33.164409637451171875 32.624408721923828125 32.32440948486328125 31.264408111572265625 30.498180389404296875 30.238180160522460938 29.448179244995117188 28.638179779052734375 28.058179855346679688 27.448179244995117188 26.818180084228515625 26.508180618286132813 25.923412322998046875 25.5134124755859375 24.923412322998046875 24.713413238525390625 23.633413314819335938 23.253412246704101563 21.903411865234375 21.353412628173828125 20.2104339599609375 19.590433120727539063 18.500432968139648438 15.92043304443359375 10.080432891845703125 0.10043320059776306152 0 0 0 8.082004547119140625 6.3220047950744628906 2.4420046806335449219 0 0 0 0 0 0 0
18.002859115600585938 17.622858047485351563 17.20285797119140625 16.752859115600585938 16.09285736083984375 15.436318397521972656 14.176318168640136719 13.606318473815917969 14.636318206787109375 15.376317977905273438 16.3363189697265625 17.266317367553710938 17.79631805419921875 16.215871810913085938 14.695871353149414063 14.535871505737304688 13.715871810913085938 13.935872077941894531 14.235872268676757813 13.775872230529785156 13.395872116088867188 14.584857940673828125 14.484857559204101563 14.164857864379882813 14.764858245849609375 15.084857940673828125 14.594858169555664063 13.804858207702636719 14.134858131408691406 13.924043655395507813 13.654044151306152344 14.294043540954589844 14.614044189453125 14.544043540954589844 15.074044227600097656 15.984044075012207031 17.18404388427734375 18.58538055419921875 20.755380630493164063 22.705381393432617188 25.1253814697265625 26.115381240844726563 25.6253814697265625 25.065382003784179688 24.885381698608398438 24.153936386108398438 23.593935012817382813 22.623935699462890625 23.71393585205078125 24.46393585205078125 24.1439361572265625 24.193935394287109375 20.093935012817382813 20.427217483520507813 21.737216949462890625 23.2272186279296875 24.467218399047851563 26.457218170166015625 27.747217178344726563 29.417217254638671875 29.857217788696289063 30.695709228515625 29.715709686279296875 31.605709075927734375 32.3057098388671875 31.605709075927734375 31.5557098388671875 30.395709991455078125 25.795709609985351563 24.375078201293945313 25.505079269409179688 27.295078277587890625 29.655078887939453125 31.675079345703125 32.695079803466796875 32.63507843017578125 33.99507904052734375 35.609470367431640625 36.709468841552734375 37.9094696044921875 40.2194671630859375 42.25946807861328125 43.11946868896484375 42.58946990966796875 42.3294677734375 41.777423858642578125 41.917423248291015625 41.4674224853515625 40.9674224853515625 39.61742401123046875 38.47742462158203125 37.577423095703125 36.4674224853515625 35.776580810546875 34.73657989501953125 34.586582183837890625 34.37657928466796875 34.30657958984375 34.146579742431640625 34.276580810546875 34.476581573486328125 34.060699462890625 34.35070037841796875 34.74069976806640625 35.050701141357421875 34.650699615478515625 34.8607025146484375 34.74069976806640625 34.29070281982421875 34.524471282958984375 34.034473419189453125 33.704471588134765625 34.644474029541015625 34.824474334716796875 35.244472503662109375 35.424472808837890625 35.40447235107421875 34.5344085693359375 33.524410247802734375 33.344409942626953125 32.584407806396484375 32.32440948486328125 33.024410247802734375 32.594409942626953125 31.844408035278320313 31.228179931640625 30.708179473876953125 29.90818023681640625 29.078180313110351563 28.3681793212890625 27.90818023681640625 27.418180465698242188 27.108179092407226563 26.853412628173828125 26.7634124755859375 26.323411941528320313 25.503412246704101563 24.533412933349609375 24.33341217041015625 23.633413314819335938 22.683412551879882813 21.760433197021484375 20.830432891845703125 20.390432357788085938 18.42043304443359375 17.290433883666992188 14.730433464050292969 3.4204332828521728516 0 0 4.6320047378540039063 10.592004776000976563 6.3420047760009765625 5.1120047569274902344 0 0 0 0 0 0
19.012979507446289063 18.902978897094726563 18.562978744506835938 18.112979888916015625 17.632978439331054688 17.37059783935546875 17.26059722900390625 16.880598068237304688 17.720598220825195313 18.340597152709960938 18.920597076416015625 19.090597152709960938 19.170597076416015625 17.649745941162109375 15.619747161865234375 14.379746437072753906 15.249746322631835938 15.469746589660644531 16.439746856689453125 17.179746627807617188 16.609746932983398438 16.5791015625 16.749101638793945313 16.509099960327148438 15.249100685119628906 15.249100685119628906 14.529100418090820313 15.03910064697265625 14.78910064697265625 14.989327430725097656 15.239327430725097656 14.949327468872070313 15.309327125549316406 16.109327316284179688 16.559328079223632813 16.999326705932617188 18.249326705932617188 21.022890090942382813 22.542888641357421875 24.17288970947265625 26.462888717651367188 25.262889862060546875 25.152889251708984375 24.92288970947265625 25.342889785766601563 25.497388839721679688 25.607387542724609375 23.76738739013671875 23.567388534545898438 24.76738739013671875 26.62738800048828125 29.037387847900390625 26.847387313842773438 22.839069366455078125 22.769069671630859375 23.519069671630859375 25.759069442749023438 26.979068756103515625 27.339069366455078125 29.2490692138671875 29.199069976806640625 29.723812103271484375 31.043811798095703125 31.4538116455078125 31.123811721801757813 30.043811798095703125 26.923810958862304688 26.13381195068359375 25.4838104248046875 26.642116546630859375 28.902116775512695313 31.352117538452148438 31.922117233276367188 33.322116851806640625 34.3721160888671875 36.41211700439453125 39.0621185302734375 41.96160888671875 45.3216094970703125 49.47161102294921875 54.3216094970703125 60.991611480712890625 64.72161102294921875 65.491607666015625 62.061611175537109375 55.629756927490234375 50.379756927490234375 48.449756622314453125 46.559757232666015625 44.999759674072265625 44.029758453369140625 43.3297576904296875 42.5197601318359375 41.857509613037109375 40.967510223388671875 39.81751251220703125 39.977512359619140625 39.587512969970703125 39.047512054443359375 38.717510223388671875 38.38751220703125 38.3936920166015625 38.303691864013671875 38.983692169189453125 39.093692779541015625 38.04369354248046875 38.253692626953125 38.07369232177734375 37.6436920166015625 37.307586669921875 36.62758636474609375 36.09758758544921875 35.98758697509765625 35.58758544921875 36.2275848388671875 36.147586822509765625 35.12758636474609375 34.437717437744140625 33.7077178955078125 33.697719573974609375 32.7877197265625 32.937717437744140625 32.987720489501953125 33.007717132568359375 32.547718048095703125 32.09745025634765625 31.367448806762695313 30.23744964599609375 29.477449417114257813 28.727449417114257813 28.137449264526367188 27.957448959350585938 27.73744964599609375 27.493631362915039063 27.583631515502929688 27.3636322021484375 27.063632965087890625 26.503631591796875 25.93363189697265625 25.353631973266601563 23.693632125854492188 22.951898574829101563 21.361898422241210938 20.911897659301757813 18.92189788818359375 18.611898422241210938 18.38189697265625 15.381897926330566406 5.5918979644775390625 3.9559087753295898438 5.0959086418151855469 5.3059086799621582031 0 0.89590871334075927734 5.2759089469909667969 4.4759087562561035156 2.2159087657928466797 0 0 0.34702834486961364746
19.292980194091796875 19.552978515625 19.602979660034179688 19.652978897094726563 19.652978897094726563 19.23059844970703125 19.160596847534179688 19.530597686767578125 19.780597686767578125 19.850597381591796875 20.100597381591796875 20.030597686767578125 19.660596847534179688 18.789747238159179688 17.399745941162109375 15.509746551513671875 14.979746818542480469 15.859746932983398438 16.049747467041015625 16.91974639892578125 18.23974609375 17.859100341796875 16.909101486206054688 16.259099960327148438 16.4691009521484375 16.239101409912109375 17.589101791381835938 17.129100799560546875 16.919101715087890625 16.559328079223632813 16.469327926635742188 16.839326858520507813 17.09932708740234375 16.999326705932617188 18.429327011108398438 20.309328079223632813 22.089326858520507813 22.002889633178710938 23.292888641357421875 26.3828887939453125 26.402889251708984375 25.622888565063476563 25.042888641357421875 25.06288909912109375 26.1028900146484375 26.48738861083984375 25.647388458251953125 22.887388229370117188 22.967388153076171875 24.157388687133789063 25.76738739013671875 28.477388381958007813 31.207387924194335938 31.06906890869140625 29.189069747924804688 26.649068832397460938 27.049070358276367188 28.299070358276367188 29.759069442749023438 30.199069976806640625 29.709070205688476563 30.353811264038085938 30.653810501098632813 28.813812255859375 27.933811187744140625 27.293811798095703125 26.693811416625976563 27.13381195068359375 28.753810882568359375 30.572116851806640625 31.762117385864257813 32.822116851806640625 33.98211669921875 36.16211700439453125 39.69211578369140625 44.642116546630859375 51.0921173095703125 63.451610565185546875 76.3216094970703125 84.44161224365234375 89.7716064453125 89.67160797119140625 86.0716094970703125 83.03160858154296875 80.33161163330078125 76.78975677490234375 66.2397613525390625 54.93975830078125 52.89975738525390625 49.8297576904296875 48.2997589111328125 48.03975677490234375 48.449756622314453125 48.117511749267578125 46.937511444091796875 44.95751190185546875 43.397510528564453125 42.607509613037109375 42.867511749267578125 42.327510833740234375 42.17751312255859375 42.563694000244140625 42.163692474365234375 42.263690948486328125 42.203693389892578125 41.053691864013671875 40.57369232177734375 40.93369293212890625 40.553691864013671875 40.027584075927734375 38.62758636474609375 38.247585296630859375 36.807586669921875 37.287586212158203125 36.577587127685546875 35.2275848388671875 35.307586669921875 34.9277191162109375 34.737720489501953125 34.437717437744140625 33.60771942138671875 33.837718963623046875 34.067718505859375 33.947719573974609375 33.067718505859375 32.76744842529296875 31.997449874877929688 30.94744873046875 29.997449874877929688 29.297449111938476563 28.707448959350585938 28.297449111938476563 28.397449493408203125 28.493631362915039063 28.583631515502929688 28.353631973266601563 27.773632049560546875 27.383632659912109375 27.103631973266601563 26.083631515502929688 25.383632659912109375 24.771898269653320313 23.331897735595703125 21.901897430419921875 19.63189697265625 19.361898422241210938 19.201898574829101563 17.17189788818359375 11.981897354125976563 6.575908660888671875 1.2759087085723876953 5.0659089088439941406 0.29590874910354614258 0 0 0 5.6059088706970214844 6.4370284080505371094 5.2570285797119140625 5.1870284080505371094
19.752979278564453125 19.9129791259765625 19.902978897094726563 19.752979278564453125 20.442979812622070313 21.320598602294921875 21.48059844970703125 21.110597610473632813 20.990598678588867188 21.100597381591796875 21.140598297119140625 20.98059844970703125 20.570598602294921875 19.88974761962890625 18.929746627807617188 17.55974578857421875 16.189746856689453125 15.009746551513671875 15.5997467041015625 15.809746742248535156 16.459747314453125 18.209100723266601563 18.669101715087890625 18.709100723266601563 18.799100875854492188 19.029100418090820313 18.78910064697265625 18.009099960327148438 17.7191009521484375 18.069326400756835938 18.679327011108398438 18.869327545166015625 19.609327316284179688 21.329326629638671875 23.129327774047851563 24.929327011108398438 25.799327850341796875 26.17288970947265625 27.442890167236328125 28.012889862060546875 26.792888641357421875 26.92288970947265625 27.482889175415039063 27.1028900146484375 26.932889938354492188 26.577388763427734375 23.617387771606445313 20.87738800048828125 22.477388381958007813 24.617387771606445313 26.187387466430664063 27.5873870849609375 28.847387313842773438 30.7490692138671875 31.649068832397460938 31.989068984985351563 31.419069290161132813 30.659069061279296875 31.139068603515625 30.35906982421875 30.31906890869140625 28.193811416625976563 27.803812026977539063 27.493810653686523438 27.153810501098632813 28.063812255859375 29.183811187744140625 30.303812026977539063 31.113811492919921875 32.23211669921875 33.91211700439453125 36.322116851806640625 39.952117919921875 44.63211822509765625 51.452117919921875 67.08211517333984375 84.892120361328125 92.651611328125 94.22161102294921875 94.00160980224609375 92.81160736083984375 92.0716094970703125 91.2716064453125 89.72161102294921875 87.03160858154296875 84.22975921630859375 80.00975799560546875 60.929759979248046875 57.989757537841796875 57.0797576904296875 54.489757537841796875 52.47975921630859375 51.0497589111328125 52.81751251220703125 53.17751312255859375 51.0575103759765625 47.197509765625 45.23751068115234375 44.897510528564453125 44.897510528564453125 45.667510986328125 47.373691558837890625 47.6436920166015625 45.24369049072265625 44.133693695068359375 44.78369140625 44.35369110107421875 43.68369293212890625 43.523693084716796875 43.09758758544921875 41.747585296630859375 40.637584686279296875 38.497585296630859375 38.067584991455078125 37.357585906982421875 36.867584228515625 36.9175872802734375 36.2877197265625 35.807720184326171875 35.4577178955078125 34.9277191162109375 35.227718353271484375 34.657718658447265625 34.4577178955078125 33.867717742919921875 33.3374481201171875 32.65744781494140625 31.73744964599609375 30.937448501586914063 30.01744842529296875 29.347448348999023438 29.107448577880859375 29.177448272705078125 29.423631668090820313 29.463632583618164063 29.143632888793945313 28.8636322021484375 28.453632354736328125 28.023632049560546875 27.213632583618164063 26.373632431030273438 25.591897964477539063 24.761898040771484375 23.441898345947265625 20.711896896362304688 20.701898574829101563 20.28189849853515625 19.661897659301757813 17.28189849853515625 12.135909080505371094 8.6359090805053710938 4.3959088325500488281 3.2059087753295898438 3.0859086513519287109 0 0 0 0 0 1.8470283746719360352
21.362979888916015625 20.772979736328125 21.562978744506835938 21.172979354858398438 20.712980270385742188 20.850597381591796875 21.750597000122070313 22.470598220825195313 22.26059722900390625 21.790597915649414063 21.51059722900390625 21.040597915649414063 20.280597686767578125 18.499746322631835938 17.209747314453125 16.769746780395507813 16.189746856689453125 15.989747047424316406 15.249746322631835938 16.229745864868164063 16.909746170043945313 17.099100112915039063 18.409101486206054688 19.549100875854492188 19.949100494384765625 20.139101028442382813 19.67910003662109375 19.629100799560546875 18.9691009521484375 18.759326934814453125 19.429327011108398438 20.899328231811523438 23.20932769775390625 25.45932769775390625 25.559328079223632813 25.759326934814453125 26.149328231811523438 26.732889175415039063 26.992889404296875 28.742889404296875 29.462888717651367188 29.392889022827148438 29.322889328002929688 28.122888565063476563 27.012889862060546875 23.457387924194335938 20.5873870849609375 22.077388763427734375 23.98738861083984375 24.887388229370117188 26.207387924194335938 27.76738739013671875 28.137388229370117188 28.7490692138671875 29.849069595336914063 31.149068832397460938 33.03907012939453125 34.379070281982421875 34.329071044921875 30.279069900512695313 28.849069595336914063 28.303812026977539063 28.033811569213867188 28.353811264038085938 29.213811874389648438 29.653810501098632813 30.34381103515625 31.613811492919921875 33.283809661865234375 35.042118072509765625 38.33211517333984375 43.202117919921875 49.41211700439453125 57.612117767333984375 77.94211578369140625 92.672119140625 95.60211944580078125 96.47161102294921875 96.71160888671875 97.5116119384765625 98.53160858154296875 98.97161102294921875 98.14160919189453125 96.3816070556640625 93.58161163330078125 90.529754638671875 88.599761962890625 73.92975616455078125 62.5197601318359375 65.029754638671875 65.64975738525390625 63.25975799560546875 58.249759674072265625 51.98751068115234375 52.937511444091796875 51.827510833740234375 49.88751220703125 48.0275115966796875 47.12751007080078125 46.867511749267578125 47.397510528564453125 47.1436920166015625 47.85369110107421875 48.85369110107421875 48.633693695068359375 48.873691558837890625 48.123691558837890625 47.013690948486328125 46.663692474365234375 46.33758544921875 44.687587738037109375 42.927585601806640625 41.01758575439453125 40.057586669921875 39.33758544921875 38.577587127685546875 37.9775848388671875 37.5377197265625 37.117717742919921875 36.077716827392578125 35.187717437744140625 34.827716827392578125 34.3977203369140625 34.237720489501953125 33.557720184326171875 33.287448883056640625 33.077449798583984375 32.0274505615234375 30.967449188232421875 30.457448959350585938 29.957448959350585938 29.477449417114257813 29.607448577880859375 30.54363250732421875 30.133632659912109375 30.163631439208984375 29.713632583618164063 29.193632125854492188 28.733631134033203125 28.1136322021484375 27.6136322021484375 26.951898574829101563 25.78189849853515625 23.761898040771484375 22.31189727783203125 21.821897506713867188 22.101898193359375 21.871898651123046875 20.761898040771484375 18.865909576416015625 15.655908584594726563 12.125908851623535156 9.3359088897705078125 4.5259089469909667969 2.6259088516235351563 0 0 0 0 0
22.752979278564453125 22.682979583740234375 22.362979888916015625 22.552978515625 22.082979202270507813 21.530597686767578125 21.840597152709960938 22.280597686767578125 22.570598602294921875 22.220598220825195313 21.6905975341796875 20.850597381591796875 19.840597152709960938 18.249746322631835938 17.23974609375 16.659746170043945313 16.269746780395507813 16.949747085571289063 17.509746551513671875 17.699747085571289063 18.88974761962890625 19.979101181030273438 19.159101486206054688 18.569101333618164063 19.559101104736328125 21.28910064697265625 22.569101333618164063 21.39910125732421875 20.699100494384765625 21.299327850341796875 22.549327850341796875 24.559328079223632813 26.45932769775390625 26.48932647705078125 26.70932769775390625 26.499326705932617188 24.689327239990234375 24.81288909912109375 25.932889938354492188 26.8528900146484375 27.772890090942382813 28.582889556884765625 27.012889862060546875 25.95288848876953125 23.722888946533203125 22.177387237548828125 23.607387542724609375 25.327388763427734375 26.797388076782226563 27.917387008666992188 26.617387771606445313 26.647388458251953125 27.5573883056640625 28.959070205688476563 29.2490692138671875 29.389068603515625 31.409069061279296875 33.85906982421875 36.309070587158203125 35.329071044921875 31.85906982421875 30.41381072998046875 29.283811569213867188 29.073810577392578125 29.84381103515625 30.853811264038085938 32.393810272216796875 34.043811798095703125 36.34381103515625 40.242115020751953125 45.322116851806640625 50.682117462158203125 57.862117767333984375 69.422119140625 86.3121185302734375 98.60211944580078125 100.61211395263671875 101.75160980224609375 103.30161285400390625 105.09161376953125 106.06160736083984375 105.7616119384765625 104.5116119384765625 102.5416107177734375 99.97161102294921875 97.08975982666015625 94.66976165771484375 90.029754638671875 75.30976104736328125 71.95975494384765625 72.55976104736328125 71.5197601318359375 68.69976043701171875 58.827510833740234375 52.977512359619140625 51.62751007080078125 50.407512664794921875 49.5275115966796875 48.797512054443359375 47.81751251220703125 46.367511749267578125 45.503692626953125 45.843692779541015625 48.32369232177734375 48.85369110107421875 48.763690948486328125 48.913692474365234375 48.74369049072265625 48.18369293212890625 48.037586212158203125 47.58758544921875 45.887584686279296875 43.817584991455078125 42.187587738037109375 41.357585906982421875 40.2275848388671875 39.29758453369140625 38.3977203369140625 38.077716827392578125 37.337718963623046875 36.1477203369140625 35.367717742919921875 34.35771942138671875 34.067718505859375 33.237720489501953125 32.677448272705078125 32.387447357177734375 31.76744842529296875 31.047449111938476563 30.677448272705078125 30.367448806762695313 29.94744873046875 29.997449874877929688 31.283632278442382813 30.963632583618164063 30.68363189697265625 30.603631973266601563 30.18363189697265625 29.263631820678710938 28.733631134033203125 27.93363189697265625 27.401897430419921875 26.021898269653320313 24.06189727783203125 23.461896896362304688 23.291898727416992188 22.831897735595703125 21.651897430419921875 21.301897048950195313 20.385908126831054688 19.815908432006835938 19.09590911865234375 18.155908584594726563 14.4159088134765625 7.9759087562561035156 4.23590850830078125 0.81590873003005981445 0 0 0
23.852979660034179688 23.752979278564453125 23.312978744506835938 22.95298004150390625 23.34297943115234375 23.140598297119140625 23.040597915649414063 23.12059783935546875 23.060598373413085938 22.610597610473632813 21.470598220825195313 20.240598678588867188 18.970598220825195313 18.459747314453125 18.449747085571289063 18.579746246337890625 18.409746170043945313 19.089746475219726563 21.8497467041015625 22.709747314453125 21.98974609375 21.299100875854492188 21.569101333618164063 22.609100341796875 22.859100341796875 24.129100799560546875 25.299100875854492188 25.589101791381835938 24.89910125732421875 23.679327011108398438 25.509326934814453125 26.6393280029296875 27.569326400756835938 28.519327163696289063 28.589326858520507813 28.689327239990234375 27.829326629638671875 27.45288848876953125 27.412889480590820313 28.06288909912109375 28.272890090942382813 29.002889633178710938 26.552888870239257813 25.832889556884765625 23.762889862060546875 24.137388229370117188 25.997388839721679688 27.76738739013671875 28.577388763427734375 29.117387771606445313 29.37738800048828125 29.457387924194335938 29.967388153076171875 30.939069747924804688 30.709070205688476563 29.939069747924804688 31.339069366455078125 32.92906951904296875 35.14907073974609375 37.84906768798828125 38.17906951904296875 33.963809967041015625 30.643812179565429688 30.313812255859375 31.313812255859375 32.91381072998046875 35.013813018798828125 38.2038116455078125 42.763813018798828125 47.042118072509765625 51.102115631103515625 56.672115325927734375 64.8421173095703125 69.88211822509765625 80.08211517333984375 107.1521148681640625 108.75211334228515625 109.95160675048828125 111.94161224365234375 113.241607666015625 113.39160919189453125 112.22161102294921875 110.3816070556640625 108.2916107177734375 105.991607666015625 103.45975494384765625 100.749755859375 97.67975616455078125 94.53975677490234375 86.719757080078125 77.0497589111328125 76.2697601318359375 75.68975830078125 69.4675140380859375 56.2475128173828125 53.67751312255859375 51.98751068115234375 51.26750946044921875 50.037509918212890625 48.947509765625 48.037509918212890625 47.553691864013671875 47.3936920166015625 47.24369049072265625 47.68369293212890625 48.303691864013671875 48.383693695068359375 47.8636932373046875 48.9236907958984375 49.067584991455078125 49.01758575439453125 48.287586212158203125 46.33758544921875 44.557586669921875 43.58758544921875 42.01758575439453125 40.827587127685546875 39.63771820068359375 38.46772003173828125 38.197719573974609375 37.807720184326171875 37.10771942138671875 36.487720489501953125 35.737720489501953125 34.6477203369140625 33.927448272705078125 32.397449493408203125 31.077449798583984375 30.707448959350585938 31.177448272705078125 30.917449951171875 30.717449188232421875 31.007450103759765625 31.993631362915039063 31.663631439208984375 31.68363189697265625 31.283632278442382813 30.803632736206054688 29.383632659912109375 28.463632583618164063 28.153631210327148438 27.151897430419921875 25.7418975830078125 24.371898651123046875 24.191898345947265625 23.06189727783203125 22.951898574829101563 22.161897659301757813 21.821897506713867188 21.245908737182617188 20.48590850830078125 20.59590911865234375 20.195909500122070313 19.885908126831054688 16.115909576416015625 9.0659084320068359375 5.7059087753295898438 2.5270283222198486328 0.30702835321426391602 0
24.902978897094726563 24.832979202270507813 24.722978591918945313 24.422979354858398438 24.422979354858398438 24.200597763061523438 24.05059814453125 23.580596923828125 23.060598373413085938 22.920597076416015625 21.860597610473632813 20.410596847534179688 19.250597000122070313 19.199747085571289063 19.689746856689453125 20.999746322631835938 23.659746170043945313 23.699747085571289063 24.459747314453125 24.089746475219726563 23.659746170043945313 23.639101028442382813 23.509099960327148438 23.0791015625 22.749101638793945313 23.359100341796875 24.589101791381835938 26.459100723266601563 27.809101104736328125 29.119327545166015625 28.509326934814453125 27.519327163696289063 27.559328079223632813 27.979328155517578125 28.3893280029296875 28.559328079223632813 28.679327011108398438 29.302888870239257813 29.542888641357421875 29.822889328002929688 29.732889175415039063 29.302888870239257813 27.222888946533203125 25.542888641357421875 25.752889633178710938 27.51738739013671875 28.367387771606445313 28.397388458251953125 28.847387313842773438 28.76738739013671875 29.3373870849609375 30.077388763427734375 30.927387237548828125 31.209070205688476563 31.349069595336914063 32.229068756103515625 30.329069137573242188 30.629070281982421875 32.7190704345703125 35.549068450927734375 36.199069976806640625 35.653812408447265625 33.13381195068359375 31.963811874389648438 33.973812103271484375 36.253810882568359375 39.583812713623046875 43.753810882568359375 47.813812255859375 50.922115325927734375 54.8721160888671875 61.962116241455078125 67.91211700439453125 71.5421142578125 80.22211456298828125 114.98211669921875 119.74211883544921875 120.14160919189453125 121.09161376953125 121.20160675048828125 120.08161163330078125 118.08161163330078125 115.871612548828125 113.55161285400390625 111.16161346435546875 108.78975677490234375 106.1397552490234375 103.33975982666015625 100.8797607421875 97.719757080078125 92.30976104736328125 88.80976104736328125 84.42975616455078125 82.17751312255859375 63.84751129150390625 58.857509613037109375 56.337512969970703125 53.87751007080078125 53.327510833740234375 53.337512969970703125 53.367511749267578125 51.49369049072265625 49.9236907958984375 49.253692626953125 48.72369384765625 48.843692779541015625 48.79369354248046875 49.333690643310546875 49.703693389892578125 50.357585906982421875 50.257587432861328125 48.76758575439453125 46.90758514404296875 45.527584075927734375 44.9475860595703125 43.177585601806640625 41.607585906982421875 40.88771820068359375 40.38771820068359375 40.077716827392578125 38.987720489501953125 38.327716827392578125 37.937717437744140625 37.877719879150390625 36.88771820068359375 35.867450714111328125 34.757450103759765625 32.497447967529296875 31.167449951171875 30.827449798583984375 30.927448272705078125 31.01744842529296875 31.147449493408203125 32.203632354736328125 32.923633575439453125 32.733631134033203125 32.03363037109375 30.733631134033203125 29.733631134033203125 28.803632736206054688 28.403631210327148438 27.4918975830078125 25.88189697265625 25.441898345947265625 24.931898117065429688 23.871898651123046875 23.851898193359375 23.06189727783203125 22.261898040771484375 21.795907974243164063 21.115909576416015625 21.225908279418945313 20.805908203125 21.045907974243164063 19.9159088134765625 17.335908889770507813 10.555909156799316406 6.3570284843444824219 3.3970284461975097656 2.7370283603668212891
26.422979354858398438 26.672979354858398438 26.312978744506835938 25.872980117797851563 25.45298004150390625 24.950597763061523438 24.490598678588867188 23.700597763061523438 23.270597457885742188 23.780597686767578125 24.180597305297851563 23.490598678588867188 22.740598678588867188 21.979745864868164063 22.199747085571289063 23.699747085571289063 27.179746627807617188 27.3497467041015625 26.759746551513671875 26.449747085571289063 24.429746627807617188 23.28910064697265625 22.769100189208984375 23.2191009521484375 25.03910064697265625 26.42910003662109375 26.9691009521484375 28.009099960327148438 28.799100875854492188 30.359327316284179688 30.129327774047851563 30.20932769775390625 28.299327850341796875 27.9193267822265625 28.659326553344726563 29.379327774047851563 29.249326705932617188 30.392889022827148438 30.192890167236328125 30.652889251708984375 30.06288909912109375 28.992889404296875 27.652889251708984375 25.772890090942382813 26.95288848876953125 28.437387466430664063 29.187387466430664063 29.887388229370117188 31.01738739013671875 30.247388839721679688 28.137388229370117188 27.647388458251953125 28.847387313842773438 30.889068603515625 31.199069976806640625 30.2190704345703125 28.959070205688476563 30.009069442749023438 31.729068756103515625 31.879070281982421875 31.889068603515625 32.7038116455078125 34.513813018798828125 34.793811798095703125 36.863811492919921875 40.363811492919921875 44.643810272216796875 48.123809814453125 51.02381134033203125 52.8721160888671875 58.202117919921875 65.75211334228515625 69.142120361328125 74.5621185302734375 83.05211639404296875 126.35211944580078125 131.73211669921875 129.931610107421875 129.111602783203125 127.4816131591796875 125.5216064453125 123.3816070556640625 121.16161346435546875 118.66161346435546875 116.5116119384765625 114.18975830078125 111.749755859375 109.529754638671875 107.2697601318359375 104.5797576904296875 101.56975555419921875 100.67975616455078125 95.69976043701171875 91.59751129150390625 72.0275115966796875 63.45751190185546875 61.31751251220703125 61.5575103759765625 61.7775115966796875 60.2475128173828125 58.7775115966796875 57.733692169189453125 55.53369140625 53.28369140625 51.453693389892578125 51.083690643310546875 50.28369140625 50.46369171142578125 50.663692474365234375 50.357585906982421875 50.26758575439453125 49.54758453369140625 48.147586822509765625 45.457584381103515625 44.687587738037109375 43.967586517333984375 43.4775848388671875 43.157718658447265625 42.74771881103515625 42.91771697998046875 41.407718658447265625 39.507717132568359375 38.337718963623046875 38.047718048095703125 37.797718048095703125 36.717449188232421875 35.997447967529296875 34.44744873046875 32.45745086669921875 31.747449874877929688 31.327449798583984375 31.26744842529296875 31.69744873046875 32.5836334228515625 34.023632049560546875 33.003631591796875 32.003631591796875 31.04363250732421875 30.493631362915039063 29.813632965087890625 29.18363189697265625 28.001897811889648438 27.011898040771484375 26.621898651123046875 25.831897735595703125 24.06189727783203125 23.331897735595703125 23.221897125244140625 22.351898193359375 21.995908737182617188 21.745908737182617188 21.405908584594726563 21.365909576416015625 21.62590789794921875 20.545907974243164063 20.405908584594726563 17.805908203125 11.247028350830078125 7.08702850341796875 3.7770283222198486328
28.00872802734375 28.128726959228515625 27.8987274169921875 27.3987274169921875 26.928728103637695313 26.2851715087890625 25.865171432495117188 25.1751708984375 24.435171127319335938 22.635171890258789063 24.735170364379882813 26.385171890258789063 26.60517120361328125 25.76988983154296875 25.29988861083984375 24.929889678955078125 25.859888076782226563 26.729888916015625 26.079889297485351563 25.379888534545898438 25.949888229370117188 25.624233245849609375 26.004232406616210938 24.764232635498046875 25.024232864379882813 26.454233169555664063 28.264232635498046875 30.14423370361328125 29.774232864379882813 30.270481109619140625 29.7904815673828125 29.820482254028320313 28.820482254028320313 27.97048187255859375 27.940481185913085938 28.670482635498046875 29.0404815673828125 29.663318634033203125 30.733318328857421875 32.023319244384765625 31.533319473266601563 29.983318328857421875 30.383319854736328125 28.86331939697265625 29.11331939697265625 31.43900299072265625 32.999004364013671875 34.18900299072265625 31.839002609252929688 30.629003524780273438 31.219003677368164063 28.749002456665039063 28.289003372192382813 28.202274322509765625 29.04227447509765625 30.532274246215820313 31.282274246215820313 32.142276763916015625 31.4422760009765625 31.65227508544921875 32.022274017333984375 33.659519195556640625 36.519519805908203125 39.589519500732421875 42.8995208740234375 46.519519805908203125 49.6795196533203125 52.519519805908203125 53.299518585205078125 54.707088470458984375 60.1870880126953125 67.57708740234375 72.39708709716796875 78.13709259033203125 96.82708740234375 140.547088623046875 139.927093505859375 137.88885498046875 136.13885498046875 132.4688568115234375 131.228851318359375 128.76885986328125 126.918853759765625 124.31885528564453125 121.6288604736328125 119.1208648681640625 116.70085906982421875 114.4308624267578125 112.11086273193359375 109.45085906982421875 107.07086181640625 104.7408599853515625 101.08086395263671875 98.02325439453125 84.5732574462890625 71.77325439453125 72.09325408935546875 73.053253173828125 73.03325653076171875 71.7932586669921875 68.993255615234375 67.88677978515625 66.04677581787109375 62.45677947998046875 58.166778564453125 55.56678009033203125 54.256778717041015625 52.8067779541015625 52.186779022216796875 51.775798797607421875 50.895801544189453125 51.18579864501953125 50.8657989501953125 49.62580108642578125 49.535800933837890625 48.785800933837890625 47.68579864501953125 46.7026214599609375 45.6726226806640625 44.782623291015625 43.82262420654296875 41.302623748779296875 38.872623443603515625 37.782623291015625 37.3126220703125 37.451251983642578125 36.8312530517578125 35.071254730224609375 33.091251373291015625 32.12125396728515625 31.711252212524414063 31.441253662109375 31.461252212524414063 32.451030731201171875 34.22103118896484375 33.631031036376953125 32.91103363037109375 31.661031723022460938 30.731031417846679688 30.22103118896484375 29.731031417846679688 28.798954010009765625 27.018953323364257813 26.478952407836914063 26.188953399658203125 26.088953018188476563 25.198953628540039063 24.648952484130859375 23.928953170776367188 23.508008956909179688 22.918008804321289063 22.14801025390625 22.548009872436523438 22.208009719848632813 20.928009033203125 20.798009872436523438 20.2880096435546875 17.673370361328125 11.293370246887207031 7.2533698081970214844
30.668727874755859375 30.248727798461914063 29.71872711181640625 29.32872772216796875 28.908727645874023438 28.265171051025390625 27.845170974731445313 27.46517181396484375 27.595170974731445313 28.025171279907226563 28.505170822143554688 29.615171432495117188 29.985170364379882813 30.65988922119140625 30.789888381958007813 30.059888839721679688 29.229888916015625 27.679889678955078125 26.969888687133789063 27.069889068603515625 26.329889297485351563 26.734231948852539063 27.634233474731445313 28.084232330322265625 29.17423248291015625 29.024232864379882813 29.434232711791992188 32.17423248291015625 31.264232635498046875 30.08048248291015625 30.43048095703125 30.560482025146484375 30.710481643676757813 30.670482635498046875 29.590482711791992188 29.020481109619140625 29.0404815673828125 29.513319015502929688 29.47332000732421875 30.483318328857421875 31.953319549560546875 31.963319778442382813 31.273319244384765625 31.383319854736328125 32.39331817626953125 32.499004364013671875 33.009002685546875 32.379001617431640625 32.879001617431640625 32.18900299072265625 29.839002609252929688 28.219003677368164063 29.469003677368164063 29.952274322509765625 30.342275619506835938 31.352275848388671875 31.4722747802734375 31.892274856567382813 31.9422760009765625 32.992275238037109375 35.052276611328125 38.10951995849609375 42.159519195556640625 46.409519195556640625 50.059520721435546875 53.299518585205078125 56.27951812744140625 58.509521484375 59.309520721435546875 60.11708831787109375 70.22708892822265625 77.58708953857421875 82.3470916748046875 100.0970916748046875 136.83709716796875 151.2770843505859375 145.417083740234375 143.9388580322265625 141.3388519287109375 137.4588623046875 136.3188629150390625 134.0988616943359375 131.9588623046875 128.8088531494140625 125.9988555908203125 123.4908599853515625 120.980865478515625 118.100860595703125 116.03086090087890625 113.1508636474609375 110.57086181640625 107.7408599853515625 105.05086517333984375 102.52325439453125 101.0732574462890625 95.0732574462890625 88.27325439453125 83.9132537841796875 80.75325775146484375 80.0432586669921875 76.2932586669921875 75.39678192138671875 74.12677764892578125 71.69677734375 67.70677947998046875 60.7767791748046875 60.63677978515625 59.396778106689453125 58.076778411865234375 57.315799713134765625 56.705799102783203125 56.23580169677734375 54.65579986572265625 52.955799102783203125 53.19580078125 52.815799713134765625 51.43579864501953125 49.652622222900390625 48.272624969482421875 46.972621917724609375 45.612621307373046875 43.832622528076171875 41.482624053955078125 38.832622528076171875 37.482624053955078125 38.001251220703125 38.001251220703125 36.881252288818359375 34.851253509521484375 33.3012542724609375 32.521251678466796875 32.021251678466796875 31.72125244140625 32.031032562255859375 33.561031341552734375 34.69103240966796875 34.05103302001953125 32.561031341552734375 31.72103118896484375 31.271032333374023438 30.901031494140625 30.178953170776367188 29.38895416259765625 28.438953399658203125 28.178953170776367188 27.788953781127929688 27.258953094482421875 26.688953399658203125 25.378953933715820313 24.638010025024414063 23.958009719848632813 22.638010025024414063 22.908008575439453125 22.698009490966796875 21.978010177612304688 21.978010177612304688 21.118009567260742188 20.093370437622070313 16.923370361328125 11.043370246887207031
32.348728179931640625 31.8987274169921875 31.348728179931640625 30.878726959228515625 30.43872833251953125 29.835170745849609375 29.2851715087890625 30.135171890258789063 31.125171661376953125 31.0651702880859375 31.985170364379882813 31.335170745849609375 30.885171890258789063 30.669889450073242188 30.989889144897460938 31.5898895263671875 32.039890289306640625 30.999889373779296875 28.599889755249023438 26.489889144897460938 27.90988922119140625 29.664232254028320313 30.454233169555664063 30.7142333984375 30.53423309326171875 31.304233551025390625 32.304233551025390625 32.984233856201171875 32.27423095703125 31.060482025146484375 30.990482330322265625 31.780481338500976563 31.210481643676757813 30.600481033325195313 31.5104827880859375 30.920482635498046875 29.570482254028320313 29.763319015502929688 30.773319244384765625 30.953319549560546875 30.703319549560546875 32.303318023681640625 33.4033203125 33.313320159912109375 32.0433197021484375 32.3390045166015625 33.179004669189453125 34.01900482177734375 33.029003143310546875 31.069004058837890625 29.089002609252929688 28.539003372192382813 28.769002914428710938 28.912275314331054688 29.802274703979492188 30.982275009155273438 31.882274627685546875 32.202274322509765625 33.842273712158203125 36.7222747802734375 40.6922760009765625 45.919521331787109375 49.989521026611328125 52.909519195556640625 54.909519195556640625 55.919521331787109375 57.979518890380859375 60.509521484375 64.06951904296875 67.89708709716796875 98.25708770751953125 120.19709014892578125 132.82708740234375 143.5570831298828125 155.2170867919921875 154.4770965576171875 151.3870849609375 148.678863525390625 144.9688568115234375 139.76885986328125 141.9588623046875 137.798858642578125 135.9688568115234375 133.6288604736328125 130.548858642578125 127.55086517333984375 124.42086029052734375 121.28086090087890625 119.09085845947265625 116.78086090087890625 114.50086212158203125 111.5208587646484375 108.7608642578125 106.03325653076171875 104.8232574462890625 100.933258056640625 91.22325897216796875 91.2132568359375 87.11325836181640625 85.09325408935546875 78.553253173828125 77.13677978515625 76.0767822265625 74.4967803955078125 72.2167816162109375 66.28678131103515625 66.17678070068359375 65.31678009033203125 63.9967803955078125 63.915798187255859375 65.07579803466796875 63.8058013916015625 60.845798492431640625 58.32579803466796875 57.01580047607421875 55.93579864501953125 54.995800018310546875 53.442623138427734375 51.46262359619140625 49.052623748779296875 47.4526214599609375 44.722621917724609375 42.762622833251953125 40.60262298583984375 38.88262176513671875 39.23125457763671875 38.8012542724609375 38.071254730224609375 36.73125457763671875 35.061252593994140625 34.001251220703125 33.43125152587890625 32.711254119873046875 32.19103240966796875 31.951032638549804688 33.021030426025390625 35.131031036376953125 33.391033172607421875 32.7910308837890625 32.22103118896484375 32.33103179931640625 31.588953018188476563 30.48895263671875 29.578952789306640625 28.978952407836914063 28.688953399658203125 28.108953475952148438 27.448953628540039063 26.158952713012695313 25.2880096435546875 24.238010406494140625 23.088008880615234375 23.258008956909179688 23.328008651733398438 23.118009567260742188 22.938009262084960938 21.948009490966796875 21.113368988037109375 19.3133697509765625 15.483369827270507813
32.75872802734375 32.488727569580078125 32.00872802734375 31.558727264404296875 30.988727569580078125 30.5351715087890625 30.595170974731445313 31.0351715087890625 32.665172576904296875 32.845172882080078125 33.21517181396484375 32.77516937255859375 32.02516937255859375 31.459888458251953125 31.699888229370117188 30.829889297485351563 30.009889602661132813 30.18988800048828125 30.399888992309570313 30.539888381958007813 29.309888839721679688 29.094232559204101563 30.264232635498046875 31.054233551025390625 33.42423248291015625 34.8542327880859375 34.554233551025390625 33.794231414794921875 32.374233245849609375 31.47048187255859375 31.490482330322265625 31.250482559204101563 31.410482406616210938 31.320482254028320313 30.740482330322265625 31.170482635498046875 31.450481414794921875 30.72332000732421875 30.883319854736328125 31.833318710327148438 32.343318939208984375 33.433319091796875 34.493320465087890625 33.633319854736328125 33.46331787109375 33.57900238037109375 34.90900421142578125 35.059001922607421875 33.57900238037109375 30.279003143310546875 28.789003372192382813 29.789003372192382813 31.199003219604492188 30.892274856567382813 30.432275772094726563 31.032274246215820313 32.832275390625 35.362274169921875 39.87227630615234375 45.992275238037109375 51.802276611328125 55.189517974853515625 56.019519805908203125 57.289520263671875 58.259521484375 59.82952117919921875 62.119518280029296875 65.5895233154296875 67.66951751708984375 81.07708740234375 128.357086181640625 143.0070953369140625 154.83709716796875 156.8770904541015625 159.2170867919921875 157.2570953369140625 155.0570831298828125 152.4088592529296875 146.798858642578125 142.4488525390625 146.39886474609375 142.4488525390625 141.8488616943359375 137.8188629150390625 134.358856201171875 131.6508636474609375 128.5808563232421875 125.17086029052734375 122.410858154296875 120.3708648681640625 118.45085906982421875 115.230865478515625 112.22086334228515625 110.09325408935546875 107.683258056640625 104.09325408935546875 100.87325286865234375 99.42325592041015625 90.08325958251953125 92.0132598876953125 85.6632537841796875 78.7167816162109375 79.8267822265625 77.0267791748046875 76.3367767333984375 73.15677642822265625 71.2767791748046875 69.34677886962890625 67.3367767333984375 67.165802001953125 68.0258026123046875 67.3657989501953125 66.04579925537109375 64.73580169677734375 61.965801239013671875 58.65579986572265625 56.8358001708984375 55.832622528076171875 53.99262237548828125 51.88262176513671875 49.4226226806640625 46.232624053955078125 43.32262420654296875 41.762622833251953125 39.532623291015625 39.091251373291015625 39.031253814697265625 38.62125396728515625 37.65125274658203125 36.461254119873046875 35.501251220703125 35.601253509521484375 35.97125244140625 35.44103240966796875 34.91103363037109375 34.4310302734375 35.571033477783203125 34.391033172607421875 34.0410308837890625 33.571033477783203125 33.451030731201171875 32.658954620361328125 31.458953857421875 30.378953933715820313 29.77895355224609375 29.158952713012695313 28.498952865600585938 28.018953323364257813 27.158952713012695313 25.668008804321289063 24.458009719848632813 23.778009414672851563 23.258008956909179688 23.188009262084960938 23.158008575439453125 23.118009567260742188 22.618009567260742188 21.88336944580078125 20.653369903564453125 18.13336944580078125
33.488727569580078125 33.1187286376953125 32.628726959228515625 32.25872802734375 32.058727264404296875 32.27516937255859375 31.805171966552734375 31.21517181396484375 31.295171737670898438 32.0651702880859375 33.60517120361328125 34.0351715087890625 33.8151702880859375 32.989887237548828125 32.65988922119140625 31.999889373779296875 30.389888763427734375 29.929889678955078125 30.18988800048828125 30.65988922119140625 30.489889144897460938 30.824232101440429688 31.574232101440429688 31.494232177734375 30.78423309326171875 30.524232864379882813 31.484231948852539063 32.31423187255859375 32.844234466552734375 32.5704803466796875 32.72048187255859375 32.33048248291015625 31.640481948852539063 31.190481185913085938 31.050481796264648438 31.210481643676757813 31.210481643676757813 31.97332000732421875 32.6033172607421875 33.413318634033203125 34.39331817626953125 35.14331817626953125 35.89331817626953125 34.743320465087890625 35.14331817626953125 35.069004058837890625 33.099002838134765625 31.759002685546875 30.589002609252929688 29.249002456665039063 29.559003829956054688 30.54900360107421875 30.919002532958984375 31.092275619506835938 32.04227447509765625 34.492275238037109375 38.112274169921875 43.812274932861328125 50.04227447509765625 55.812274932861328125 56.592273712158203125 57.77951812744140625 67.90952301025390625 78.2095184326171875 78.54952239990234375 81.849517822265625 89.039520263671875 96.81951904296875 104.24951934814453125 127.237091064453125 150.9070892333984375 158.297088623046875 161.3870849609375 161.417083740234375 161.8470916748046875 160.1270904541015625 158.8170928955078125 156.078857421875 149.7788543701171875 145.4988555908203125 151.2888641357421875 146.13885498046875 144.25885009765625 141.298858642578125 137.9988555908203125 135.6108551025390625 132.3708648681640625 128.850860595703125 126.17086029052734375 123.89086151123046875 121.36086273193359375 118.06085968017578125 115.42086029052734375 113.22325897216796875 110.0732574462890625 108.14325714111328125 103.8232574462890625 101.243255615234375 97.77325439453125 95.84325408935546875 89.3232574462890625 80.0567779541015625 80.13677978515625 78.8067779541015625 77.8067779541015625 75.73677825927734375 73.94677734375 73.09677886962890625 71.26677703857421875 70.34580230712890625 70.475799560546875 69.4257965087890625 67.98580169677734375 66.2758026123046875 64.79579925537109375 62.8358001708984375 59.69580078125 56.71262359619140625 55.50262451171875 53.772624969482421875 51.442623138427734375 48.192623138427734375 44.832622528076171875 41.93262481689453125 40.652622222900390625 39.251251220703125 38.711254119873046875 38.79125213623046875 38.071254730224609375 37.451251983642578125 37.26125335693359375 37.241252899169921875 37.501251220703125 37.22103118896484375 37.58103179931640625 36.83103179931640625 36.00102996826171875 35.16103363037109375 34.741031646728515625 34.461032867431640625 34.141033172607421875 33.23895263671875 32.288951873779296875 31.338953018188476563 30.438953399658203125 30.088953018188476563 29.8489532470703125 29.478952407836914063 28.588953018188476563 27.008008956909179688 25.228010177612304688 24.298009872436523438 23.798009872436523438 24.14801025390625 23.99800872802734375 23.568010330200195313 23.158008575439453125 22.613368988037109375 21.623369216918945313 20.093370437622070313
33.68872833251953125 33.3987274169921875 33.50872802734375 33.628726959228515625 33.848728179931640625 34.2551727294921875 34.0051727294921875 33.2551727294921875 32.49517059326171875 32.125171661376953125 33.2551727294921875 33.07517242431640625 32.345172882080078125 31.68988800048828125 31.509889602661132813 32.69989013671875 32.109889984130859375 31.629888534545898438 32.279888153076171875 32.389888763427734375 32.789890289306640625 32.054233551025390625 30.17423248291015625 30.244232177734375 31.414232254028320313 32.02423095703125 31.734231948852539063 31.664232254028320313 32.594234466552734375 33.340480804443359375 34.14048004150390625 33.3704833984375 32.450481414794921875 31.5404815673828125 31.200481414794921875 31.380481719970703125 31.2904815673828125 32.023319244384765625 33.173320770263671875 34.313320159912109375 36.233318328857421875 37.4033203125 35.2633209228515625 34.5433197021484375 34.873317718505859375 35.349002838134765625 33.559001922607421875 29.989004135131835938 29.759002685546875 30.649003982543945313 31.249002456665039063 31.40900421142578125 32.139003753662109375 33.2522735595703125 36.202274322509765625 42.5022735595703125 48.01227569580078125 54.632274627685546875 58.04227447509765625 57.62227630615234375 64.64227294921875 74.7095184326171875 84.19951629638671875 82.15952301025390625 92.85951995849609375 107.7695159912109375 117.9895172119140625 130.719512939453125 144.1095123291015625 154.9670867919921875 163.1870880126953125 165.927093505859375 165.797088623046875 164.8970947265625 165.297088623046875 164.01708984375 162.167083740234375 159.6188507080078125 154.1588592529296875 151.4688568115234375 154.1988525390625 149.5688629150390625 147.75885009765625 144.7088623046875 141.3788604736328125 138.7808685302734375 135.540863037109375 132.0908660888671875 129.5608673095703125 127.290863037109375 124.1808624267578125 121.07086181640625 118.8708648681640625 116.90325927734375 113.17325592041015625 111.19326019287109375 105.9632568359375 100.4632568359375 98.53325653076171875 95.2132568359375 89.34325408935546875 82.70677947998046875 80.65677642822265625 79.67678070068359375 77.666778564453125 75.12677764892578125 72.81678009033203125 72.78678131103515625 72.976776123046875 73.90579986572265625 73.06580352783203125 71.60579681396484375 69.8957977294921875 67.49579620361328125 65.87580108642578125 64.73580169677734375 62.345798492431640625 59.0626220703125 55.762622833251953125 54.25262451171875 52.4226226806640625 49.21262359619140625 45.63262176513671875 43.3926239013671875 41.222621917724609375 40.18125152587890625 38.881252288818359375 38.97125244140625 38.62125396728515625 38.191253662109375 38.811252593994140625 39.061252593994140625 38.391254425048828125 37.781032562255859375 37.50102996826171875 36.881031036376953125 36.41103363037109375 36.151031494140625 35.91103363037109375 35.241031646728515625 34.75102996826171875 34.078952789306640625 33.38895416259765625 32.368953704833984375 31.23895263671875 30.80895233154296875 31.008953094482421875 30.458953857421875 29.368953704833984375 28.078008651733398438 26.35800933837890625 25.21800994873046875 24.698009490966796875 25.158008575439453125 24.528009414672851563 23.99800872802734375 23.348009109497070313 22.613368988037109375 21.673370361328125 20.703369140625
33.838726043701171875 34.04872894287109375 34.478729248046875 34.57872772216796875 34.75872802734375 35.0651702880859375 34.85517120361328125 34.155170440673828125 33.7551727294921875 33.305171966552734375 33.3151702880859375 32.595172882080078125 31.665170669555664063 31.719888687133789063 32.749889373779296875 32.57988739013671875 31.759889602661132813 32.029888153076171875 31.959888458251953125 32.229888916015625 32.229888916015625 33.06423187255859375 33.494232177734375 32.944232940673828125 32.4642333984375 32.724231719970703125 32.9642333984375 33.3542327880859375 32.92423248291015625 33.0404815673828125 33.380481719970703125 34.72048187255859375 34.2604827880859375 32.64048004150390625 31.800481796264648438 32.2904815673828125 32.230480194091796875 32.7633209228515625 34.053318023681640625 35.72332000732421875 37.72332000732421875 37.023319244384765625 35.75331878662109375 36.08332061767578125 35.923320770263671875 33.879001617431640625 31.29900360107421875 31.149003982543945313 31.959003448486328125 31.809003829956054688 32.009002685546875 33.1190032958984375 34.8390045166015625 37.642276763916015625 43.9422760009765625 51.29227447509765625 55.26227569580078125 60.0022735595703125 62.452274322509765625 70.9422760009765625 77.79227447509765625 78.789520263671875 76.2695159912109375 77.18952178955078125 105.74951934814453125 124.57952117919921875 135.919525146484375 150.7095184326171875 160.0595245361328125 166.94708251953125 171.177093505859375 170.8870849609375 170.0370941162109375 169.1270904541015625 169.3870849609375 167.5270843505859375 165.57708740234375 162.9488525390625 158.9988555908203125 158.108856201171875 155.9388580322265625 152.9588623046875 151.918853759765625 147.9688568115234375 144.608856201171875 141.8608551025390625 138.790863037109375 135.1808624267578125 132.720855712890625 130.3008575439453125 127.53086090087890625 124.53086090087890625 121.6208648681640625 119.72325897216796875 116.19326019287109375 112.25325775146484375 98.83325958251953125 90.9632568359375 95.97325897216796875 92.67325592041015625 84.86325836181640625 80.9967803955078125 79.976776123046875 76.28678131103515625 76.84677886962890625 75.98677825927734375 74.34677886962890625 73.00678253173828125 72.8267822265625 73.34580230712890625 72.035797119140625 71.56580352783203125 71.09580230712890625 69.6157989501953125 67.8058013916015625 65.8058013916015625 63.715801239013671875 61.032623291015625 57.24262237548828125 54.982624053955078125 53.38262176513671875 50.082622528076171875 45.9526214599609375 43.5626220703125 41.68262481689453125 40.561252593994140625 39.461254119873046875 39.15125274658203125 39.091251373291015625 39.3012542724609375 39.79125213623046875 39.741252899169921875 38.9112548828125 38.171031951904296875 37.841030120849609375 37.80103302001953125 37.19103240966796875 37.08103179931640625 36.781032562255859375 36.131031036376953125 35.4810333251953125 34.728954315185546875 33.958953857421875 32.958953857421875 32.178955078125 31.718954086303710938 31.63895416259765625 30.768953323364257813 29.928953170776367188 28.948009490966796875 27.368009567260742188 25.71800994873046875 25.238010406494140625 25.678009033203125 25.318010330200195313 24.628009796142578125 23.89801025390625 22.773370742797851563 22.083370208740234375 21.663370132446289063
34.198726654052734375 34.60872650146484375 34.388729095458984375 34.568729400634765625 35.238727569580078125 35.35517120361328125 35.045169830322265625 34.295169830322265625 33.705169677734375 33.225170135498046875 32.835170745849609375 31.955171585083007813 31.2851715087890625 32.719890594482421875 33.729888916015625 32.43988800048828125 31.399888992309570313 32.479888916015625 32.94989013671875 33.069889068603515625 33.609889984130859375 32.224231719970703125 31.224233627319335938 31.614233016967773438 31.764232635498046875 32.624233245849609375 33.364231109619140625 33.994232177734375 34.3242340087890625 33.3204803466796875 32.780483245849609375 33.39048004150390625 33.980480194091796875 33.730480194091796875 33.270481109619140625 33.920482635498046875 33.5404815673828125 34.36331939697265625 35.523319244384765625 36.7933197021484375 38.123317718505859375 39.183319091796875 35.053318023681640625 34.843318939208984375 33.123317718505859375 31.319004058837890625 32.03900146484375 32.6190032958984375 32.739002227783203125 33.01900482177734375 33.949005126953125 36.069004058837890625 39.8690032958984375 45.452274322509765625 52.922275543212890625 54.892276763916015625 58.2522735595703125 67.29227447509765625 69.15227508544921875 75.14227294921875 77.90227508544921875 76.96952056884765625 75.7095184326171875 77.599517822265625 101.1295166015625 137.039520263671875 152.8095245361328125 167.68951416015625 175.9295196533203125 177.01708984375 176.8870849609375 176.2770843505859375 175.107086181640625 174.0670928955078125 173.4670867919921875 171.44708251953125 169.2870941162109375 166.328857421875 162.8488616943359375 161.8688507080078125 159.13885498046875 156.25885009765625 154.4588623046875 151.4688568115234375 147.7188568115234375 144.82086181640625 141.8708648681640625 138.0808563232421875 135.540863037109375 133.130859375 130.380859375 127.6508636474609375 123.97086334228515625 121.28325653076171875 117.65325927734375 113.70325469970703125 106.45325469970703125 100.8532562255859375 90.3232574462890625 87.33325958251953125 85.9132537841796875 80.69677734375 80.69677734375 78.226776123046875 77.8267822265625 76.86678314208984375 76.12677764892578125 73.65677642822265625 72.54677581787109375 72.59580230712890625 71.69580078125 72.50579833984375 72.74579620361328125 71.69580078125 69.26580047607421875 67.23580169677734375 64.81580352783203125 61.942623138427734375 58.57262420654296875 55.2026214599609375 53.902622222900390625 50.372623443603515625 46.582622528076171875 44.4226226806640625 42.652622222900390625 41.5812530517578125 39.8312530517578125 39.501251220703125 39.68125152587890625 40.47125244140625 40.321254730224609375 39.72125244140625 39.351253509521484375 38.83103179931640625 38.47103118896484375 38.37103271484375 38.00102996826171875 37.41103363037109375 37.281032562255859375 36.701030731201171875 35.91103363037109375 35.0989532470703125 34.078952789306640625 33.048954010009765625 32.548954010009765625 32.69895172119140625 31.8489532470703125 31.108953475952148438 30.13895416259765625 29.198009490966796875 27.868009567260742188 26.548009872436523438 25.988010406494140625 25.948009490966796875 25.89801025390625 25.378009796142578125 24.198009490966796875 23.233369827270507813 22.863368988037109375 22.473369598388671875
34.08782958984375 33.737827301025390625 33.01782989501953125 33.2278289794921875 35.51782989501953125 36.036655426025390625 36.09665679931640625 34.786655426025390625 33.56665802001953125 33.13665771484375 32.576656341552734375 31.786657333374023438 31.63665771484375 32.789661407470703125 32.4796600341796875 32.209659576416015625 32.37966156005859375 32.01966094970703125 32.43965911865234375 33.079662322998046875 33.809661865234375 33.959381103515625 34.589382171630859375 34.399383544921875 32.309383392333984375 32.059383392333984375 32.17938232421875 32.329380035400390625 32.699382781982421875 33.745532989501953125 33.965534210205078125 34.015533447265625 34.285533905029296875 34.885532379150390625 34.535533905029296875 34.715534210205078125 35.035533905029296875 35.061656951904296875 35.561656951904296875 36.3716583251953125 38.661655426025390625 39.1816558837890625 38.5716552734375 32.55165863037109375 32.1216583251953125 33.176860809326171875 33.776859283447265625 33.71685791015625 34.386859893798828125 35.3268585205078125 37.47686004638671875 41.44686126708984375 49.83686065673828125 54.9749908447265625 57.924991607666015625 62.064990997314453125 68.59499359130859375 77.60498809814453125 73.0049896240234375 76.55499267578125 78.06499481201171875 77.30568695068359375 76.0956878662109375 80.22568511962890625 112.75568389892578125 139.675689697265625 166.795684814453125 181.3756866455078125 186.82568359375 185.25799560546875 182.4579925537109375 181.6580047607421875 180.097991943359375 178.63800048828125 177.5780029296875 176.037994384765625 173.25799560546875 169.608917236328125 166.32891845703125 164.8789215087890625 162.058929443359375 158.798919677734375 157.0289306640625 154.5189208984375 150.9989166259765625 147.68878173828125 144.748779296875 141.528778076171875 138.838775634765625 136.3787841796875 133.8787841796875 130.7587890625 126.968780517578125 123.78058624267578125 120.3505859375 117.2105865478515625 110.6005859375 112.2305908203125 108.41058349609375 105.36058807373046875 101.95058441162109375 98.9338531494140625 93.8738555908203125 88.41385650634765625 83.77385711669921875 77.91385650634765625 76.3238525390625 74.9338531494140625 73.55385589599609375 74.097747802734375 74.43775177001953125 75.75775146484375 74.8677520751953125 73.43775177001953125 71.4277496337890625 69.00775146484375 65.88774871826171875 62.368320465087890625 59.17832183837890625 54.868320465087890625 52.938320159912109375 49.6383209228515625 46.62831878662109375 44.67832183837890625 42.92832183837890625 41.86501312255859375 40.625011444091796875 40.25501251220703125 40.25501251220703125 40.675014495849609375 40.525012969970703125 40.07501220703125 39.605010986328125 39.365329742431640625 39.155330657958984375 38.865329742431640625 38.3853302001953125 37.755329132080078125 37.52532958984375 36.865329742431640625 36.1053314208984375 35.452602386474609375 34.232601165771484375 33.512603759765625 33.632602691650390625 33.032604217529296875 32.072601318359375 31.1826019287109375 30.312602996826171875 29.287168502807617188 27.9271697998046875 26.77716827392578125 25.627168655395507813 25.227169036865234375 25.38716888427734375 24.967168807983398438 24.147169113159179688 23.794637680053710938 23.514638900756835938 22.6146392822265625
